ply
format ascii 1.0
comment PCL generated
element vertex 652
property float x
property float y
property float z
property float nx
property float ny
property float nz
property float curvature
element camera 0
property float view_px
property float view_py
property float view_pz
property float x_axisx
property float x_axisy
property float x_axisz
property float y_axisx
property float y_axisy
property float y_axisz
property float z_axisx
property float z_axisy
property float z_axisz
property float focal
property float scalex
property float scaley
property float centerx
property float centery
property int viewportx
property int viewporty
property float k1
property float k2
end_header
49.502102 -111.35 -25.643 -0.12072219 0.35241067 -0.92802632 0.00016574822
49.700001 -111.273 -25.6334 -0.12071661 0.35219273 -0.92810977 0.00022409689
49.8979 -111.305 -25.672001 -0.1208024 0.35269213 -0.92790896 0.00014139875
50.095901 -111.316 -25.700001 -0.12082815 0.35285863 -0.92784232 4.7529062e-05
50.302898 -111.254 -25.7008 -0.12090839 0.352485 -0.92797387 9.7652606e-05
50.503601 -111.354 -25.763201 -0.12076078 0.35251784 -0.92798066 9.0990856e-05
50.700298 -111.271 -25.769899 -0.12092076 0.35288012 -0.92782205 4.5903398e-05
50.8279 -111.219 -25.7707 -0.1207967 0.35271209 -0.9279021 8.5135398e-05
49.943901 -111.175 -25.6301 -0.12069611 0.35243177 -0.92802173 0.00016353412
50.095798 -111.119 -25.615101 -0.12073575 0.35258442 -0.92795855 0.00010436295
50.2929 -111.038 -25.616301 -0.12093443 0.35309789 -0.92773741 2.0859008e-05
50.502602 -111.153 -25.691 -0.12087028 0.35267153 -0.92790794 9.9295241e-05
50.7006 -111.077 -25.680901 -0.12086102 0.35285544 -0.92783922 7.2104129e-05
50.895302 -111.114 -25.7349 -0.12092622 0.35298172 -0.92778265 5.3974232e-05
51.096199 -111.118 -25.750401 -0.12096417 0.35276479 -0.92786026 6.6630084e-05
51.2938 -111.039 -25.745501 -0.12082702 0.35253647 -0.92796487 9.5059193e-05
50.501999 -110.954 -25.6131 -0.12080537 0.35282442 -0.92785829 6.9502516e-05
50.699402 -110.874 -25.6115 -0.12074853 0.35255039 -0.92796981 0.00010246062
50.897499 -110.907 -25.6469 -0.12069677 0.35250407 -0.92799413 9.3471703e-05
51.0956 -110.918 -25.6737 -0.12080498 0.3525978 -0.92794442 0.00010289135
51.2929 -110.838 -25.6728 -0.12088091 0.35246608 -0.92798465 9.5114126e-05
51.502701 -110.954 -25.744499 -0.1207841 0.35258466 -0.92795223 9.5533818e-05
51.701 -110.879 -25.7304 -0.12053209 0.35206696 -0.92818153 0.00019953444
51.8396 -110.819 -25.7388 -0.12060332 0.35166839 -0.92832333 0.00023434807
52.375401 -110.807 -25.7966 -0.12081801 0.35276881 -0.92787778 6.2910913e-05
50.943401 -110.777 -25.6057 -0.12073219 0.35246632 -0.92800391 0.00011866314
51.0131 -110.749 -25.604601 -0.12095804 0.35281986 -0.92784011 7.2487026e-05
51.245201 -110.655 -25.603901 -0.12085935 0.35255092 -0.92795521 7.6910772e-05
51.502499 -110.757 -25.6618 -0.12084873 0.35256323 -0.92795193 9.3924886e-05
51.699799 -110.677 -25.6605 -0.12080374 0.35233888 -0.92804301 0.00012398166
51.8974 -110.707 -25.7043 -0.1206718 0.35181722 -0.928258 0.00022394233
52.106602 -110.711 -25.736799 -0.12079415 0.35257626 -0.92795408 6.8374051e-05
52.304699 -110.634 -25.7253 -0.12085161 0.35277072 -0.92787266 7.1147268e-05
52.561401 -110.734 -25.7915 -0.12092056 0.35275936 -0.92786801 6.2796178e-05
52.7006 -110.677 -25.791401 -0.12092168 0.35255682 -0.92794484 8.8263783e-05
52.840199 -110.622 -25.7857 -0.12107152 0.35282531 -0.92782325 3.4454861e-05
51.523701 -110.541 -25.6045 -0.12085045 0.35248563 -0.9279812 0.0001014076
51.943901 -110.579 -25.6555 -0.12080943 0.35224363 -0.92807835 0.00016406436
52.106098 -110.512 -25.6584 -0.1208806 0.35249221 -0.92797476 0.00014221015
52.292099 -110.438 -25.652599 -0.12106484 0.35303065 -0.927746 4.8253543e-05
52.502201 -110.555 -25.7213 -0.12102721 0.35287857 -0.92780882 1.4821232e-05
52.699902 -110.477 -25.714899 -0.12112191 0.35326231 -0.92765033 0
52.897499 -110.497 -25.7528 -0.12123596 0.35341546 -0.92757714 0
53.106899 -110.512 -25.7883 -0.12103823 0.35317126 -0.92769593 0
53.304699 -110.434 -25.7812 -0.12131403 0.35334352 -0.9275943 0
52.384701 -110.399 -25.6562 -0.12107077 0.35307953 -0.92772663 1.2117043e-05
52.5009 -110.353 -25.653799 -0.12102038 0.35293353 -0.92778873 0
52.698898 -110.276 -25.6436 -0.12127321 0.35372216 -0.92745537 0
52.896801 -110.297 -25.676701 -0.12144175 0.35385936 -0.92738092 0
53.105999 -110.311 -25.7157 -0.12119315 0.35330641 -0.92762434 0
53.303902 -110.234 -25.7061 -0.12136289 0.35316783 -0.92765486 0
53.502499 -110.357 -25.7729 -0.12140743 0.35321906 -0.92762953 0
53.699501 -110.275 -25.7759 -0.1215542 0.35350919 -0.92749977 0
53.839001 -110.219 -25.7733 -0.12169654 0.35386589 -0.9273451 0
52.9547 -110.175 -25.635201 -0.12136498 0.35353589 -0.92751437 0
53.105499 -110.113 -25.6366 -0.1212576 0.3530044 -0.92773086 0
53.303501 -110.036 -25.6262 -0.12149635 0.35349205 -0.9275139 0
53.501202 -110.154 -25.7052 -0.12161721 0.35387394 -0.92735243 0
53.698799 -110.076 -25.7001 -0.12148933 0.35320154 -0.92762548 0
53.897202 -110.11 -25.732 -0.12175823 0.35365969 -0.92741561 0
54.106201 -110.112 -25.768101 -0.12148559 0.35263214 -0.92784262 1.1765203e-05
54.304298 -110.036 -25.756701 -0.12171014 0.35290241 -0.92771035 0
53.500401 -109.954 -25.6301 -0.12145911 0.35332292 -0.92758322 0
53.697899 -109.875 -25.626301 -0.12135348 0.35292616 -0.92774808 0
53.896099 -109.908 -25.661301 -0.12164638 0.35322389 -0.92759639 0
54.105801 -109.915 -25.6873 -0.12161072 0.35295039 -0.92770517 0
54.3036 -109.837 -25.679701 -0.12166198 0.35301813 -0.92767268 0
54.501801 -109.957 -25.752899 -0.12146064 0.35248438 -0.92790198 4.5987722e-06
54.6996 -109.88 -25.744499 -0.12170515 0.35272977 -0.92777669 0
54.8503 -109.818 -25.746201 -0.12165717 0.35219002 -0.92798799 5.1968407e-05
53.941898 -109.777 -25.621901 -0.12143315 0.35271439 -0.92781812 4.1106088e-07
54.104698 -109.713 -25.616199 -0.12160431 0.3533158 -0.92756689 0
54.290901 -109.64 -25.6085 -0.12166302 0.35290369 -0.92771608 0
54.500702 -109.756 -25.6814 -0.12196234 0.35364392 -0.92739481 0
54.698299 -109.677 -25.677 -0.12167411 0.35251173 -0.92786366 2.3220382e-05
54.896301 -109.698 -25.7094 -0.12162999 0.35221577 -0.92798185 4.1132691e-05
55.1059 -109.715 -25.742399 -0.12141225 0.35205603 -0.92807096 8.4663996e-05
55.303501 -109.636 -25.7372 -0.12162856 0.35254592 -0.92785662 1.9074678e-05
55.595299 -109.723 -25.799299 -0.12163778 0.35233504 -0.92793548 5.8437814e-05
55.862202 -109.614 -25.7985 -0.12175631 0.35265225 -0.92779946 0
54.503201 -109.554 -25.607201 -0.12167437 0.3526811 -0.92779922 0
54.681702 -109.481 -25.607201 -0.12185667 0.35283175 -0.92771804 0
54.898499 -109.522 -25.643801 -0.12182561 0.35237905 -0.92789412 4.2933891e-05
55.1049 -109.514 -25.670099 -0.12165006 0.35244718 -0.92789131 2.6207006e-05
55.302502 -109.435 -25.665501 -0.12168848 0.3524994 -0.92786646 2.4705845e-05
55.5005 -109.555 -25.740101 -0.1216295 0.35222939 -0.92797673 6.3793603e-05
55.698399 -109.477 -25.731701 -0.12172163 0.35265529 -0.92780286 0
55.869801 -109.48 -25.741899 -0.12187564 0.35280928 -0.92772406 0
56.117699 -109.512 -25.7939 -0.12187329 0.35258886 -0.92780823 0
56.304001 -109.439 -25.7861 -0.12182163 0.35243884 -0.92787188 0
55.091999 -109.316 -25.6015 -0.12193755 0.35283533 -0.92770606 0
55.499802 -109.355 -25.6646 -0.12156834 0.35238481 -0.92792565 3.1568125e-05
55.697701 -109.278 -25.655001 -0.12173238 0.35248098 -0.92786765 0
55.895699 -109.31 -25.692499 -0.12194427 0.35277605 -0.92772764 0
56.1054 -109.317 -25.717699 -0.12207617 0.35288543 -0.92766875 0
56.3032 -109.239 -25.7103 -0.1218999 0.35248652 -0.92784357 0
56.501202 -109.358 -25.785801 -0.12194382 0.35252669 -0.92782259 0
56.698502 -109.278 -25.785801 -0.1222158 0.35265717 -0.92773712 0
56.838299 -109.224 -25.777901 -0.12219748 0.35260549 -0.92775917 0
55.942299 -109.183 -25.6423 -0.12209127 0.35285226 -0.92767936 0
56.104198 -109.115 -25.6485 -0.12199295 0.35242847 -0.92785335 7.0099504e-06
56.302101 -109.037 -25.640301 -0.12211183 0.35261494 -0.92776686 0
56.500099 -109.157 -25.7155 -0.12213745 0.35304317 -0.92760062 0
56.697701 -109.078 -25.710899 -0.12212677 0.35241741 -0.92783993 0
56.8955 -109.109 -25.750299 -0.12215757 0.35238639 -0.92784774 0
57.104698 -109.113 -25.7841 -0.12210316 0.3523663 -0.92786252 0
57.302799 -109.037 -25.771299 -0.12205234 0.35220957 -0.92792869 0
56.498798 -108.954 -25.6474 -0.12218559 0.35237995 -0.92784649 0
56.696999 -108.878 -25.6343 -0.12190568 0.35165516 -0.92815816 8.2482722e-05
56.894299 -108.907 -25.6805 -0.12213895 0.35218611 -0.92792618 0
57.104401 -108.915 -25.702 -0.12213057 0.35238954 -0.92785013 0
57.301998 -108.837 -25.6966 -0.12205368 0.35227057 -0.92790532 0
57.500198 -108.957 -25.769699 -0.12194771 0.35211012 -0.92798018 1.5783942e-05
57.696999 -108.874 -25.775299 -0.12195225 0.3519741 -0.92803121 6.6212735e-05
57.836899 -108.821 -25.7666 -0.12179882 0.3516289 -0.92818218 0.00012229203
56.940601 -108.779 -25.635401 -0.1220221 0.35201272 -0.92800736 5.0594004e-05
57.1036 -108.716 -25.6266 -0.12209951 0.35224789 -0.92790794 0
57.301601 -108.639 -25.6168 -0.122032 0.35201907 -0.92800367 4.4315388e-05
57.499401 -108.757 -25.694099 -0.12207521 0.35194552 -0.92802584 6.3089123e-05
57.696701 -108.677 -25.694099 -0.12196439 0.35159501 -0.9281733 0.00011352399
57.8946 -108.698 -25.727301 -0.12178789 0.35156596 -0.92820746 0.00012201555
58.1049 -108.718 -25.749901 -0.12196398 0.35179108 -0.92809904 0.00013658825
58.3022 -108.638 -25.7498 -0.12182643 0.3517904 -0.92811733 0.00016694616
57.498798 -108.558 -25.616699 -0.12207661 0.35178453 -0.9280867 7.5574477e-05
57.6959 -108.477 -25.618401 -0.12217113 0.35178965 -0.92807239 0.00010317265
57.894402 -108.501 -25.6451 -0.12216035 0.35205045 -0.92797482 5.8146234e-05
58.103802 -108.516 -25.680401 -0.12196565 0.35167986 -0.92814094 0.0001235971
58.301399 -108.438 -25.6754 -0.12197039 0.35188207 -0.92806369 0.00012925069
58.499401 -108.557 -25.750601 -0.12168142 0.35137534 -0.92829359 0.00022876311
58.697201 -108.48 -25.742201 -0.12175688 0.35139266 -0.92827719 0.00023037514
58.868 -108.446 -25.747801 -0.12184775 0.35190296 -0.92807192 0.00015160891
59.174999 -108.492 -25.799 -0.12159539 0.35117158 -0.92838198 0.00025451393
57.940601 -108.383 -25.605101 -0.12199022 0.35154131 -0.92819023 0.00014874111
58.102699 -108.315 -25.6089 -0.12205612 0.35176122 -0.92809826 0.00012654522
58.304199 -108.235 -25.603701 -0.12179907 0.35151452 -0.92822546 0.00016754924
58.498299 -108.355 -25.680099 -0.12164512 0.35140347 -0.92828768 0.00022240667
58.696201 -108.279 -25.67 -0.12204058 0.35193211 -0.9280355 0.00012113936
58.8937 -108.297 -25.7094 -0.12204269 0.35199788 -0.92801023 0.00011436072
59.104099 -108.318 -25.7313 -0.12194311 0.35205522 -0.92800158 9.6237534e-05
59.3009 -108.235 -25.737301 -0.12167028 0.35128301 -0.92833 0.00019690598
59.743599 -108.26 -25.7987 -0.12194391 0.35186204 -0.92807478 7.8410158e-05
59.837002 -108.226 -25.7906 -0.12193356 0.35184264 -0.92808348 7.9068675e-05
58.380402 -108.197 -25.6194 -0.12187884 0.35165092 -0.92816335 0.00016331451
58.477798 -108.161 -25.610201 -0.12198984 0.35195631 -0.92803299 9.1472983e-05
58.7761 -108.042 -25.603201 -0.1219992 0.35190138 -0.9280526 0.0001074708
58.909801 -108.134 -25.649401 -0.12215652 0.35221457 -0.92791307 7.5536373e-05
59.102901 -108.116 -25.6621 -0.12195184 0.35153911 -0.92819613 0.00013726219
59.300301 -108.036 -25.6604 -0.12189069 0.35160497 -0.92817914 0.00015668268
59.498299 -108.156 -25.7351 -0.12173164 0.35137445 -0.92828739 0.0001742785
59.696098 -108.078 -25.7271 -0.12201477 0.35166138 -0.92814153 0.00012478328
59.8517 -108.054 -25.742701 -0.12216806 0.35204628 -0.92797548 5.0223411e-05
60.161999 -108.094 -25.788799 -0.12216471 0.35222414 -0.92790836 0
60.301201 -108.037 -25.7892 -0.12222988 0.35212493 -0.92793745 0
59.4977 -107.957 -25.657101 -0.12177772 0.35164776 -0.92817777 0.00012459108
59.6954 -107.878 -25.6516 -0.12218132 0.35211784 -0.92794651 5.2593114e-05
59.8932 -107.909 -25.6917 -0.12219224 0.35196874 -0.92800164 6.1359977e-05
60.1026 -107.914 -25.721201 -0.12227653 0.35214129 -0.92792511 0
60.3008 -107.839 -25.7087 -0.12235565 0.35218048 -0.92789978 0
60.499298 -107.961 -25.7768 -0.1222258 0.35186949 -0.92803484 0
60.695801 -107.876 -25.787701 -0.1223906 0.35190833 -0.92799836 7.6851547e-06
60.847401 -107.819 -25.776899 -0.12215678 0.35153192 -0.92817187 5.3738491e-05
59.9389 -107.778 -25.653099 -0.12228478 0.35181928 -0.92804611 5.4272194e-05
60.1021 -107.716 -25.643101 -0.12255171 0.3523865 -0.92779565 0
60.299702 -107.637 -25.6371 -0.12264761 0.35251069 -0.92773587 0
60.4981 -107.758 -25.708 -0.12243152 0.35241175 -0.92780191 0
60.695202 -107.677 -25.7101 -0.12224921 0.35187522 -0.9280296 0
60.8937 -107.691 -25.7297 -0.12227632 0.35201862 -0.92797166 0
61.102798 -107.715 -25.7743 -0.12226681 0.35180134 -0.92805535 0
61.300301 -107.636 -25.770599 -0.12233475 0.35203165 -0.92795902 0
60.4977 -107.561 -25.6269 -0.12262221 0.35223484 -0.92784399 0
60.705799 -107.471 -25.638201 -0.12261935 0.35257334 -0.92771578 0
60.905998 -107.509 -25.6682 -0.12241267 0.3520678 -0.92793494 0
61.1021 -107.516 -25.697901 -0.12243354 0.35225111 -0.9278627 0
61.2995 -107.436 -25.695601 -0.12252384 0.35223794 -0.92785579 0
61.497799 -107.557 -25.768 -0.12248058 0.35187098 -0.92800069 0
61.7071 -107.474 -25.7617 -0.12252651 0.35211027 -0.92790395 0
61.845901 -107.415 -25.766899 -0.12260605 0.3517918 -0.92801416 0
60.938301 -107.379 -25.631701 -0.1224618 0.35218403 -0.92788446 0
61.101299 -107.316 -25.623699 -0.12255594 0.35223815 -0.92785144 0
61.298801 -107.237 -25.6196 -0.12254529 0.35202366 -0.92793423 0
61.4972 -107.358 -25.6901 -0.12243354 0.35173932 -0.92805684 1.2338238e-05
61.706402 -107.275 -25.685101 -0.12252608 0.35206738 -0.92792016 0
61.9039 -107.318 -25.734699 -0.12264785 0.35176837 -0.92801756 0
62.102001 -107.315 -25.7556 -0.12255912 0.35173422 -0.92804223 1.8598917e-05
62.2999 -107.238 -25.746599 -0.12257527 0.35181153 -0.9280107 0
61.496498 -107.158 -25.6136 -0.12257335 0.35194764 -0.92795944 0
61.705502 -107.074 -25.612101 -0.12278374 0.35231987 -0.92779034 0
61.903099 -107.118 -25.6602 -0.12270228 0.3521679 -0.92785877 0
62.1012 -107.115 -25.680201 -0.1224899 0.35153937 -0.92812514 1.8815344e-05
62.299301 -107.039 -25.6693 -0.1226005 0.35149619 -0.92812687 2.3013728e-05
62.4967 -107.155 -25.752701 -0.12238283 0.35150492 -0.92815226 5.068714e-05
62.706501 -107.075 -25.739201 -0.12239749 0.35163799 -0.92809999 0
62.8447 -107.013 -25.754 -0.12243781 0.3516095 -0.92810547 1.6020826e-05
61.937599 -106.98 -25.6106 -0.12253339 0.35205218 -0.92792499 0
62.053501 -106.931 -25.613199 -0.12256732 0.35161322 -0.92808694 2.6068394e-05
62.3209 -106.825 -25.6054 -0.12257424 0.35171208 -0.92804861 0
62.4963 -106.957 -25.6721 -0.12242123 0.35157198 -0.92812186 0
62.705399 -106.874 -25.6682 -0.12246316 0.35157201 -0.92811626 4.9407809e-06
62.902199 -106.907 -25.703899 -0.12225778 0.35134304 -0.92823011 9.2954135e-05
63.101299 -106.916 -25.735001 -0.12228633 0.35160691 -0.92812639 2.2404836e-05
63.298901 -106.837 -25.7299 -0.12220602 0.35195664 -0.92800444 0
63.566898 -106.93 -25.7994 -0.12209967 0.35172966 -0.92810446 0
63.7304 -106.869 -25.7847 -0.12191086 0.35159585 -0.92817998 0
63.845798 -106.819 -25.7936 -0.12188638 0.35184979 -0.928087 0
62.425301 -106.783 -25.6047 -0.12246346 0.35158461 -0.92811149 2.1306585e-05
62.949799 -106.778 -25.6579 -0.12223114 0.35146737 -0.92818654 5.6334884e-05
63.100899 -106.718 -25.6549 -0.12216247 0.35169995 -0.9281075 3.0251955e-05
63.286098 -106.64 -25.6604 -0.12225627 0.35172936 -0.92808396 2.9497602e-05
63.4963 -106.757 -25.7278 -0.1221801 0.35171631 -0.92809892 0
63.705002 -106.671 -25.7299 -0.12210992 0.35178936 -0.92808044 0
63.903198 -106.718 -25.770399 -0.12190466 0.35158309 -0.92818564 0
64.101303 -106.716 -25.7896 -0.12186697 0.35156462 -0.92819762 0
64.333099 -106.62 -25.7939 -0.1217702 0.35151556 -0.9282288 0
63.378502 -106.599 -25.6665 -0.12230535 0.35186744 -0.92802519 0
63.4953 -106.556 -25.655001 -0.12222369 0.35207352 -0.92795777 0
63.7048 -106.475 -25.6458 -0.12209652 0.35138553 -0.92823523 3.7555885e-05
63.901901 -106.509 -25.6789 -0.1220513 0.35167536 -0.92813146 0
64.1008 -106.517 -25.7108 -0.12203994 0.35218531 -0.92793953 0
64.297997 -106.436 -25.7124 -0.12194186 0.35155851 -0.92819011 0
64.496201 -106.557 -25.784401 -0.12192021 0.35148847 -0.92821944 8.5784416e-07
64.705299 -106.473 -25.7808 -0.1219896 0.35181442 -0.92808682 0
64.856201 -106.412 -25.7805 -0.12209751 0.35190347 -0.92803884 0
63.949402 -106.38 -25.6327 -0.12202459 0.35169476 -0.92812753 0
64.100098 -106.318 -25.6348 -0.12182283 0.35152057 -0.92822003 1.3812925e-05
64.297302 -106.237 -25.635099 -0.12202616 0.35187268 -0.92805994 0
64.495598 -106.358 -25.7073 -0.12212035 0.35193619 -0.92802352 0
64.704498 -106.273 -25.706699 -0.1221391 0.35211033 -0.92795491 0
64.904297 -106.308 -25.742701 -0.12210513 0.35199502 -0.92800313 0
65.099998 -106.313 -25.7777 -0.12198991 0.35161451 -0.92816257 0
65.2985 -106.239 -25.760401 -0.12196982 0.35169965 -0.92813289 0
64.494202 -106.155 -25.6399 -0.12211608 0.35191798 -0.92803091 0
64.703796 -106.073 -25.630501 -0.12225429 0.35208315 -0.92795014 0
64.902702 -106.124 -25.661301 -0.12205563 0.3514851 -0.92820287 0
65.100403 -106.119 -25.6861 -0.12187823 0.35149238 -0.92822343 1.2524097e-07
65.296997 -106.035 -25.6961 -0.1220931 0.35137719 -0.92823887 0
65.495598 -106.158 -25.761999 -0.12202673 0.35125452 -0.928294 0
65.705101 -106.076 -25.753799 -0.12186599 0.35125726 -0.92831403 3.0346602e-05
65.855797 -106.014 -25.754601 -0.12184214 0.35127109 -0.92831194 2.6154297e-05
66.357697 -106.022 -25.7997 -0.12194862 0.35162914 -0.9281624 0
64.949303 -105.984 -25.604099 -0.12209368 0.35141686 -0.92822373 1.0091811e-05
65.099503 -105.918 -25.6136 -0.1219181 0.35131156 -0.92828667 2.3639941e-05
65.305099 -105.835 -25.611601 -0.12202166 0.35119325 -0.92831779 4.1481257e-05
65.494904 -105.958 -25.686501 -0.12205022 0.3511714 -0.92832237 1.9517436e-05
65.703903 -105.874 -25.684401 -0.12188559 0.35129049 -0.92829895 4.1842213e-05
65.902298 -105.898 -25.7103 -0.12184273 0.35120794 -0.92833573 3.400485e-05
66.1008 -105.921 -25.737101 -0.12186812 0.35097292 -0.92842132 5.8807713e-05
66.298203 -105.842 -25.7337 -0.12195232 0.35107625 -0.92837119 9.5116142e-05
65.459503 -105.773 -25.608801 -0.12207567 0.35119909 -0.92830843 2.9246063e-05
65.68 -105.684 -25.608299 -0.1221177 0.35094503 -0.92839909 5.5090844e-05
65.909599 -105.729 -25.6455 -0.12164914 0.35071778 -0.92854643 0.00010035012
66.099998 -105.721 -25.6621 -0.12187748 0.35112658 -0.92836201 6.0793911e-05
66.297302 -105.641 -25.660299 -0.12207822 0.35046273 -0.92858642 0.00018453947
66.4953 -105.76 -25.7363 -0.12225445 0.35098252 -0.9283669 9.5079929e-05
66.704102 -105.675 -25.7365 -0.12205988 0.35062268 -0.92852849 0.00016256199
66.877098 -105.651 -25.736401 -0.12233936 0.35073268 -0.92845017 0.00014971118
67.378799 -105.605 -25.7988 -0.12233936 0.35049847 -0.92853868 0.00020859177
66.353401 -105.412 -25.600901 -0.12204024 0.35071751 -0.92849523 0.00016195179
66.4944 -105.56 -25.663 -0.12224364 0.35078549 -0.92844284 0.00014104402
66.703201 -105.475 -25.663 -0.12215506 0.35094988 -0.92839241 0.00014859815
66.902397 -105.502 -25.6796 -0.12234862 0.35066399 -0.9284749 0.00015823648
67.098503 -105.513 -25.7388 -0.12233422 0.35065812 -0.92847896 0.00018700908
67.2967 -105.438 -25.7244 -0.12249798 0.35086972 -0.92837745 0.00015704003
67.494904 -105.558 -25.7973 -0.12232447 0.35053408 -0.92852706 0.00019755615
67.704102 -105.475 -25.792999 -0.12226437 0.35060477 -0.92850834 0.00020804537
67.856102 -105.42 -25.7759 -0.12235889 0.35097298 -0.92835683 0.00014149437
66.947998 -105.381 -25.6474 -0.12233631 0.35074577 -0.92844558 0.00016702758
67.097702 -105.313 -25.663099 -0.12220333 0.35082564 -0.92843294 0.00017592224
67.2957 -105.237 -25.652201 -0.12246073 0.3508462 -0.92839134 0.00016395087
67.494003 -105.358 -25.7236 -0.122318 0.3508535 -0.92840725 0.00016269022
67.703903 -105.278 -25.7089 -0.1224362 0.35073468 -0.9284367 0.00018373244
67.901703 -105.298 -25.745001 -0.12225891 0.35065416 -0.9284904 0.00021531311
68.099602 -105.319 -25.7782 -0.12228326 0.35071152 -0.92846555 0.00017967956
68.297302 -105.241 -25.772699 -0.12254971 0.35069847 -0.92843539 0.00015337305
68.402496 -105.203 -25.7605 -0.12274325 0.35085109 -0.92835206 0.0001293494
67.493599 -105.16 -25.6434 -0.12257421 0.35110313 -0.92827916 0.00012954592
67.7034 -105.079 -25.631001 -0.12240892 0.35079899 -0.92841595 0.00016412599
67.901398 -105.101 -25.6628 -0.12239499 0.35080883 -0.92841405 0.00015476219
68.098999 -105.12 -25.7015 -0.12241547 0.35084978 -0.92839593 0.00013784169
68.2966 -105.041 -25.6961 -0.12284726 0.35110852 -0.92824095 9.252099e-05
68.506302 -105.156 -25.7705 -0.12307918 0.35093465 -0.92827606 8.1351784e-05
68.703003 -105.073 -25.7775 -0.12305938 0.35078445 -0.92833543 4.5122648e-05
68.841698 -105.013 -25.7855 -0.12298825 0.35057694 -0.92842323 7.8243742e-05
67.947304 -104.981 -25.6269 -0.1224771 0.35068992 -0.92844808 0.00017846988
68.098297 -104.921 -25.624599 -0.12266414 0.35102209 -0.92829788 0.00010261466
68.296097 -104.843 -25.6173 -0.12292155 0.35112152 -0.92822629 6.3940817e-05
68.494102 -104.962 -25.692101 -0.12295081 0.35116044 -0.9282077 3.4447668e-05
68.702698 -104.876 -25.695299 -0.12313022 0.35118061 -0.92817622 0
68.898598 -104.904 -25.743799 -0.12301317 0.35072595 -0.92836374 2.2281047e-05
69.097603 -104.913 -25.7754 -0.12312599 0.35033008 -0.92849815 7.542417e-05
69.296097 -104.839 -25.758699 -0.12326256 0.35033828 -0.92847693 3.3302847e-05
68.493103 -104.761 -25.620001 -0.12308257 0.35107821 -0.92822129 3.2262353e-05
68.702599 -104.679 -25.611 -0.12305763 0.35080296 -0.92832863 1.6653814e-05
68.907204 -104.724 -25.674299 -0.12305499 0.3508617 -0.92830688 0
69.097504 -104.717 -25.690701 -0.12318472 0.3505795 -0.92839622 1.3173554e-05
69.3069 -104.656 -25.693001 -0.12329391 0.35042143 -0.92844141 5.9262646e-05
69.503998 -104.749 -25.771601 -0.12329721 0.35049164 -0.9284144 4.9375514e-05
69.702301 -104.674 -25.757 -0.123275 0.35034594 -0.92847246 6.9597707e-05
69.842003 -104.62 -25.749901 -0.12322459 0.35038039 -0.92846608 9.8530043e-05
69.097 -104.518 -25.6126 -0.12311964 0.35056984 -0.92840844 5.003655e-05
69.297401 -104.462 -25.6192 -0.12325429 0.35050035 -0.92841691 6.8798538e-05
69.503403 -104.549 -25.6945 -0.12336089 0.3502419 -0.92850029 5.9644772e-05
69.701103 -104.472 -25.6873 -0.12316701 0.35031185 -0.92849958 9.2195936e-05
69.897598 -104.503 -25.7276 -0.12309834 0.35026956 -0.92852467 0.00011912232
70.096802 -104.513 -25.756001 -0.12323093 0.35029277 -0.92849827 9.228546e-05
70.294899 -104.437 -25.7451 -0.12296678 0.35028809 -0.9285351 0.00011633394
70.610497 -104.517 -25.797501 -0.12304869 0.35032982 -0.92850846 0.0001089949
70.854797 -104.421 -25.789101 -0.1231245 0.3503451 -0.92849261 0.00011613812
69.3862 -104.395 -25.623699 -0.12334435 0.35052863 -0.92839426 4.3081003e-05
69.5028 -104.35 -25.6168 -0.12325237 0.3502973 -0.92849374 4.3227526e-05
69.677399 -104.282 -25.6091 -0.1228979 0.35001704 -0.92864645 0.00012478775
69.928802 -104.341 -25.6665 -0.12303331 0.35034966 -0.92850304 9.8412413e-05
70.0961 -104.313 -25.680599 -0.12308693 0.35030785 -0.92851168 9.0194859e-05
70.305496 -104.253 -25.681801 -0.12302814 0.35020298 -0.92855912 0.00013153075
70.503403 -104.35 -25.7491 -0.12308382 0.35022765 -0.92854238 0.00011374187
70.7006 -104.269 -25.75 -0.12311902 0.35012862 -0.92857504 0.00014856823
70.901802 -104.312 -25.7666 -0.12290308 0.35006878 -0.92862624 0.0001854406
71.098503 -104.322 -25.7887 -0.12282234 0.35001388 -0.92865759 0.00016699763
71.2957 -104.241 -25.7887 -0.12305357 0.35029182 -0.92852217 7.9930636e-05
69.932899 -104.18 -25.604799 -0.12309932 0.35016206 -0.92856508 0.00011619763
70.079903 -104.12 -25.6049 -0.12334755 0.35036787 -0.92845452 7.1895323e-05
70.399399 -104.199 -25.6579 -0.12300338 0.35016105 -0.92857814 0.00013003383
70.502998 -104.152 -25.668501 -0.12307474 0.35000125 -0.92862892 0.00014936454
70.701103 -104.075 -25.657801 -0.12313879 0.35011312 -0.92857832 0.0001213733
70.898598 -104.113 -25.6828 -0.12307131 0.35010302 -0.92859101 0.00011667066
71.098 -104.123 -25.7097 -0.12301945 0.3500888 -0.92860335 0.00012036601
71.306099 -104.056 -25.729099 -0.12287039 0.35008752 -0.92862356 0.00010725865
71.539001 -104.14 -25.7941 -0.12299354 0.35027573 -0.9285363 7.0862829e-05
71.672203 -104.084 -25.7976 -0.1229853 0.35045382 -0.92847008 3.8382012e-05
71.863403 -104.005 -25.7999 -0.12281945 0.35031995 -0.92854255 7.2274721e-05
70.946297 -103.984 -25.636101 -0.12335245 0.35024112 -0.92850173 7.9957601e-05
71.096703 -103.921 -25.6411 -0.1232307 0.35021564 -0.92852753 9.7199001e-05
71.305298 -103.856 -25.654699 -0.12312093 0.35024607 -0.92853057 6.1101266e-05
71.5037 -103.955 -25.7148 -0.12310952 0.35040244 -0.92847311 2.8671348e-05
71.700699 -103.874 -25.718599 -0.12318797 0.35050607 -0.92842352 0
71.8983 -103.917 -25.767 -0.12296859 0.35038233 -0.92849928 1.4701227e-05
72.105904 -103.908 -25.793501 -0.12291664 0.35054392 -0.92844516 0
72.294197 -103.837 -25.7791 -0.12289143 0.35043752 -0.92848873 0
71.295601 -103.696 -25.6154 -0.12314848 0.35036981 -0.92848021 2.7089656e-05
71.5028 -103.755 -25.6416 -0.12294046 0.35026017 -0.92854905 7.596807e-05
71.699501 -103.672 -25.6486 -0.12290473 0.35054204 -0.92844748 8.3300283e-06
71.901299 -103.727 -25.7162 -0.12292371 0.35047927 -0.9284687 1.5548534e-06
72.095001 -103.711 -25.721399 -0.12289992 0.35048118 -0.92847115 2.6280321e-07
72.305 -103.654 -25.715 -0.12289663 0.350602 -0.92842591 0
72.502602 -103.749 -25.7861 -0.12284053 0.35026824 -0.92855924 1.780339e-07
72.700302 -103.672 -25.7792 -0.12281816 0.35022345 -0.92857909 4.6680379e-06
72.840401 -103.619 -25.768 -0.1228082 0.3503719 -0.92852443 0
71.777702 -103.427 -25.605 -0.12277323 0.35046354 -0.92849451 5.3124804e-05
71.903603 -103.552 -25.6572 -0.12302112 0.35044971 -0.92846692 2.5482159e-05
72.094597 -103.514 -25.6402 -0.12300079 0.35033271 -0.92851377 3.024666e-05
72.303902 -103.453 -25.643101 -0.12309901 0.35068092 -0.92836922 0
72.501801 -103.55 -25.710501 -0.12288934 0.35040292 -0.92850196 0
72.700302 -103.476 -25.693501 -0.12291334 0.35058728 -0.92842919 0
72.896797 -103.508 -25.733 -0.1228282 0.35056716 -0.92844808 0
73.095703 -103.515 -25.767099 -0.12277903 0.35051152 -0.92847562 0
73.292702 -103.433 -25.7701 -0.1227728 0.35056257 -0.9284572 0
72.397301 -103.396 -25.625799 -0.12302355 0.35070297 -0.92837095 0
72.501701 -103.353 -25.625799 -0.12299817 0.35073504 -0.92836225 0
72.6987 -103.271 -25.6304 -0.12286733 0.35052064 -0.92846048 0
72.8983 -103.306 -25.669399 -0.12262155 0.35071561 -0.92841941 0
73.0951 -103.316 -25.689301 -0.12264223 0.35055432 -0.92847753 0
73.304001 -103.253 -25.697399 -0.12252507 0.35057101 -0.9284867 0
73.502197 -103.352 -25.7607 -0.12288836 0.35045764 -0.92848146 0
73.699799 -103.273 -25.7554 -0.12298376 0.35064995 -0.92839622 0
73.839401 -103.218 -25.750401 -0.12299162 0.35067987 -0.92838395 0
72.931297 -103.18 -25.622 -0.12265357 0.35063201 -0.92844677 0
73.094101 -103.115 -25.6173 -0.12264913 0.3508212 -0.92837584 0
73.303001 -103.052 -25.625999 -0.12236196 0.35063624 -0.92848361 0
73.501503 -103.152 -25.684999 -0.12256508 0.3504267 -0.92853588 1.0803941e-06
73.698799 -103.072 -25.6838 -0.12285095 0.35063818 -0.9284184 0
73.896896 -103.118 -25.7255 -0.12291928 0.35062259 -0.92841518 0
74.0952 -103.117 -25.7432 -0.12297848 0.3505275 -0.92844319 0
74.2808 -103.041 -25.7437 -0.12304357 0.35048229 -0.92845166 0
73.3965 -102.996 -25.607 -0.12244157 0.35052237 -0.92851609 0
73.500702 -102.952 -25.610701 -0.12240826 0.35061914 -0.92848396 0
73.697998 -102.872 -25.609699 -0.12231975 0.35057768 -0.92851126 0
73.895897 -102.917 -25.6534 -0.12264106 0.35070634 -0.92842031 0
74.093597 -102.912 -25.6803 -0.12281442 0.35066772 -0.9284119 0
74.309998 -102.867 -25.688299 -0.12277458 0.35049632 -0.92848188 0
74.501404 -102.951 -25.742399 -0.12261038 0.35038167 -0.92854691 2.8973771e-05
74.699203 -102.874 -25.7339 -0.12275217 0.3503617 -0.9285357 0
74.838097 -102.816 -25.7383 -0.12261804 0.350467 -0.92851377 0
75.095299 -102.917 -25.7973 -0.1227157 0.3506135 -0.92844552 0
75.338799 -102.817 -25.799801 -0.12279952 0.35072759 -0.92839134 0
73.924698 -102.782 -25.603399 -0.12252311 0.35069907 -0.9284386 0
74.150803 -102.689 -25.6045 -0.12224329 0.3505581 -0.92852873 8.6874352e-06
74.302498 -102.73 -25.6353 -0.12247311 0.35046211 -0.92853475 8.9421346e-06
74.500702 -102.752 -25.6649 -0.12263982 0.35043654 -0.92852235 5.2844744e-06
74.697502 -102.669 -25.671499 -0.12249424 0.35047927 -0.92852539 5.2470095e-06
74.895599 -102.715 -25.7139 -0.12261235 0.35058296 -0.92847067 0
75.0942 -102.716 -25.7271 -0.12286525 0.3507289 -0.92838216 0
75.291199 -102.634 -25.729799 -0.12263937 0.35075989 -0.92840016 0
75.501404 -102.751 -25.7981 -0.1226303 0.35070637 -0.92842162 0
75.686897 -102.675 -25.7992 -0.12255013 0.35072467 -0.92842537 0
74.742699 -102.448 -25.6019 -0.12232943 0.3505733 -0.92851156 2.1203357e-05
74.941299 -102.571 -25.669201 -0.12254651 0.35066262 -0.92844927 0
75.104599 -102.509 -25.657101 -0.12249561 0.35064363 -0.92846322 0
75.3022 -102.452 -25.6616 -0.12237092 0.35067496 -0.92846787 0
75.5 -102.548 -25.730801 -0.12238797 0.35077214 -0.92842883 0
75.6978 -102.471 -25.723 -0.12234194 0.35073438 -0.92844921 0
75.888298 -102.473 -25.754499 -0.12231307 0.35079482 -0.92843008 0
76.093498 -102.512 -25.7925 -0.12266899 0.35085216 -0.92836142 0
76.291397 -102.435 -25.7827 -0.12265118 0.35081616 -0.92837751 0
75.395203 -102.393 -25.6507 -0.12236681 0.3507399 -0.92844379 0
75.499702 -102.351 -25.648399 -0.12224176 0.35078752 -0.92844224 0
75.696602 -102.268 -25.6544 -0.1221303 0.35082307 -0.92844361 0
75.906502 -102.319 -25.696699 -0.122283 0.35069957 -0.92847008 0
76.103897 -102.305 -25.723 -0.12225094 0.3507753 -0.92844564 0
76.302101 -102.251 -25.7197 -0.12234899 0.35069993 -0.92846125 0
76.500999 -102.354 -25.7719 -0.12266263 0.35074508 -0.92840284 0
76.6978 -102.271 -25.778601 -0.12249722 0.35071483 -0.9284361 0
76.836998 -102.214 -25.779301 -0.12240828 0.35062122 -0.92848319 0
75.940598 -102.171 -25.648899 -0.12209696 0.35069564 -0.92849606 2.5393497e-06
76.102997 -102.104 -25.6502 -0.12219893 0.35064387 -0.9285022 6.872318e-06
76.301399 -102.052 -25.643499 -0.12234489 0.35063928 -0.92848468 3.3130982e-06
76.499901 -102.152 -25.7017 -0.12233171 0.3506932 -0.92846608 0
76.696999 -102.071 -25.7038 -0.12226744 0.3507416 -0.92845625 0
76.906403 -102.119 -25.7537 -0.12249465 0.35064551 -0.92846256 0
77.103401 -102.102 -25.7857 -0.12236194 0.35067791 -0.92846787 0
77.243103 -102.048 -25.779699 -0.12234999 0.35061485 -0.92849326 0
76.394699 -101.995 -25.626699 -0.12230115 0.35073602 -0.92845392 0
76.498802 -101.95 -25.6308 -0.122325 0.35065001 -0.92848325 1.4329449e-06
76.696503 -101.872 -25.6255 -0.12231132 0.35070851 -0.92846298 0
76.905098 -101.916 -25.6859 -0.12243147 0.35063326 -0.92847556 0
77.102798 -101.903 -25.7082 -0.12260112 0.3506442 -0.92844903 0
77.208 -101.865 -25.697001 -0.12255999 0.35067472 -0.92844296 0
76.939697 -101.77 -25.6318 -0.12253157 0.35068089 -0.92844439 0
77.079399 -101.716 -25.625 -0.12259168 0.35075375 -0.92840886 0
43.724602 -113.059 -25.5376 -0.12226418 0.35358077 -0.92737913 9.993274e-06
43.829201 -113.017 -25.5355 -0.12223126 0.35343197 -0.92744023 5.7401176e-05
44.109299 -113.108 -25.598801 -0.12217298 0.35357457 -0.92739356 1.7934493e-05
44.304501 -113.03 -25.5952 -0.12198529 0.35365853 -0.92738622 6.1616674e-06
43.5966 -112.913 -25.4576 -0.12219444 0.35354325 -0.92740268 3.8398353e-05
43.700901 -112.87 -25.4589 -0.12216006 0.35360393 -0.92738408 3.741886e-05
43.8965 -112.912 -25.500601 -0.1221156 0.35356995 -0.92740285 3.7501257e-05
44.096699 -112.912 -25.5266 -0.12205168 0.35351148 -0.92743355 4.5906025e-05
44.2948 -112.857 -25.5249 -0.12194744 0.35364112 -0.92739785 3.4407592e-05
44.504299 -112.95 -25.5914 -0.12195624 0.35347536 -0.92745984 5.7155616e-05
44.6898 -112.873 -25.5937 -0.12198107 0.35341468 -0.92747974 6.9459427e-05
44.840801 -112.812 -25.591499 -0.12190171 0.35331118 -0.92752963 7.8754863e-05
43.944698 -112.771 -25.4566 -0.12207981 0.35357925 -0.92740405 6.1935847e-05
44.096001 -112.712 -25.451 -0.12201651 0.3536495 -0.92738557 3.3221018e-05
44.3055 -112.659 -25.433399 -0.12198482 0.35349298 -0.92744946 6.3235559e-05
44.503799 -112.751 -25.5121 -0.12187801 0.35365525 -0.92740154 3.1386175e-05
44.700802 -112.669 -25.5163 -0.12186585 0.35366759 -0.92739844 4.4445103e-05
44.8965 -112.711 -25.5571 -0.12191889 0.35339075 -0.92749703 6.3623207e-05
45.096699 -112.712 -25.5826 -0.12192611 0.35326466 -0.92754406 8.5526037e-05
45.282902 -112.639 -25.5749 -0.12190581 0.35337535 -0.9275046 6.035114e-05
44.502998 -112.551 -25.437401 -0.12189705 0.35367781 -0.92739052 2.7872793e-05
44.7005 -112.472 -25.4342 -0.12185536 0.3537969 -0.92735052 1.2922681e-05
44.898602 -112.505 -25.470699 -0.12184452 0.35360479 -0.92742521 5.6126231e-05
45.096001 -112.512 -25.506201 -0.1219232 0.3536011 -0.92741627 2.9731589e-05
45.293701 -112.456 -25.5098 -0.12197533 0.35333088 -0.92751247 7.7050936e-05
45.503601 -112.55 -25.570601 -0.12181471 0.35345554 -0.927486 4.9912276e-05
45.700901 -112.47 -25.570299 -0.12174476 0.35353798 -0.92746377 4.161031e-05
45.840599 -112.416 -25.5637 -0.12170477 0.35347635 -0.9274925 5.3028365e-05
44.944698 -112.375 -25.427099 -0.1218076 0.35384929 -0.92733681 0
45.106701 -112.307 -25.432199 -0.12180752 0.3537268 -0.92738348 3.2553144e-05
45.3046 -112.254 -25.434601 -0.12176384 0.35383737 -0.92734718 0
45.502399 -112.348 -25.501301 -0.12193164 0.35350108 -0.92745334 2.5202471e-05
45.700401 -112.271 -25.4918 -0.12179483 0.35347074 -0.92748284 5.3332398e-05
45.9011 -112.315 -25.537701 -0.12160702 0.35358983 -0.92746216 3.3039236e-05
46.0961 -112.313 -25.560499 -0.12147765 0.35335621 -0.92756808 7.1619717e-05
46.281898 -112.238 -25.558201 -0.12137758 0.35333297 -0.92759001 8.3130006e-05
45.385399 -112.194 -25.429899 -0.12178148 0.35377061 -0.92737025 4.3679952e-06
45.501598 -112.148 -25.4275 -0.12179185 0.35366964 -0.92740744 3.4316305e-05
45.699699 -112.072 -25.4144 -0.12176225 0.35338786 -0.92751873 8.5870677e-05
45.897202 -112.123 -25.468599 -0.12168451 0.35346258 -0.92750043 6.9548951e-05
46.106701 -112.107 -25.4879 -0.12149987 0.35368073 -0.92744142 1.4276136e-05
46.3046 -112.054 -25.4897 -0.1213628 0.35349628 -0.92752975 5.7118759e-05
46.502899 -112.151 -25.5504 -0.12128042 0.35326308 -0.92762941 9.5703304e-05
46.700199 -112.071 -25.548901 -0.12099686 0.35314798 -0.92771029 0.00012542563
46.840401 -112.018 -25.536699 -0.12092413 0.35304257 -0.92775989 0.00013792758
45.9319 -111.978 -25.4126 -0.12163412 0.35337839 -0.92753923 0.00011170214
46.094101 -111.911 -25.4156 -0.1215179 0.35344732 -0.92752808 9.2850169e-05
46.3078 -111.861 -25.417299 -0.12132479 0.35333225 -0.92759722 0.00011910803
46.502201 -111.951 -25.4739 -0.12128261 0.35355803 -0.9275167 6.6464359e-05
46.699501 -111.871 -25.4727 -0.12120073 0.35342032 -0.92757988 8.907164e-05
46.9006 -111.917 -25.5135 -0.12094676 0.35304055 -0.92775762 0.00014821778
47.1073 -111.91 -25.535 -0.12102237 0.35300094 -0.92776293 0.00010044045
47.292999 -111.835 -25.534401 -0.12095752 0.35315922 -0.92771119 6.9841168e-05
47.596199 -111.915 -25.599701 -0.12075248 0.35309389 -0.92776269 8.2908678e-05
47.699299 -111.875 -25.594801 -0.12071731 0.35304958 -0.92778409 8.9884074e-05
47.840099 -111.817 -25.5963 -0.12070674 0.35292178 -0.92783403 9.9765195e-05
46.501202 -111.75 -25.402599 -0.12126317 0.35346749 -0.92755371 8.6742228e-05
46.902599 -111.739 -25.451401 -0.12118852 0.35351723 -0.92754459 6.5747932e-05
47.106602 -111.71 -25.4596 -0.12106646 0.35339528 -0.927607 6.2165993e-05
47.304199 -111.656 -25.465401 -0.12098697 0.35322523 -0.9276821 9.065192e-05
47.501999 -111.75 -25.532 -0.12093641 0.35339588 -0.92762369 3.4801953e-05
47.699402 -111.671 -25.529699 -0.1208517 0.35316873 -0.92772126 7.1812268e-05
47.868099 -111.653 -25.5452 -0.12076363 0.35292503 -0.92782545 0.00010450245
48.095501 -111.714 -25.5942 -0.12062723 0.35280839 -0.9278875 0.00011860571
48.281601 -111.64 -25.587299 -0.12067176 0.35277143 -0.92789578 0.000143912
47.384602 -111.595 -25.465099 -0.12100831 0.35335052 -0.92763162 6.2649357e-05
47.501099 -111.55 -25.459 -0.12091409 0.35316202 -0.92771572 0.00010816239
47.698799 -111.471 -25.4526 -0.12095495 0.35307828 -0.92774218 0.00010293
47.896801 -111.525 -25.5002 -0.12080908 0.35278463 -0.92787296 0.00013439245
48.106701 -111.511 -25.514 -0.12071978 0.35312799 -0.92775393 6.8960209e-05
48.304199 -111.456 -25.5205 -0.12068231 0.35295808 -0.92782342 0.00012045254
48.501801 -111.549 -25.5909 -0.12064807 0.35280406 -0.92788649 0.00014364782
48.7001 -111.474 -25.5767 -0.12073459 0.35287094 -0.92784983 0.00010563721
48.8396 -111.419 -25.572701 -0.12073802 0.35270914 -0.92791086 0.00016434064
47.9319 -111.382 -25.438499 -0.12096713 0.35289511 -0.92781037 0.00014436082
48.106201 -111.313 -25.4338 -0.12096335 0.35313839 -0.92771822 0.000116542
48.3036 -111.257 -25.443399 -0.12076088 0.35314858 -0.92774069 0.00011316831
48.501499 -111.352 -25.509199 -0.1207997 0.35322207 -0.92770767 6.7237212e-05
48.699799 -111.277 -25.494699 -0.12074705 0.35299826 -0.92779976 0.00012470096
48.8974 -111.307 -25.5369 -0.12074191 0.35297248 -0.92781019 0.00014217255
49.1063 -111.309 -25.574301 -0.12079979 0.35281816 -0.92786139 0.00016532691
49.3036 -111.229 -25.573799 -0.1208133 0.35265377 -0.92792207 0.00018512142
48.384499 -111.198 -25.436501 -0.12082203 0.35339254 -0.9276399 6.1041159e-05
48.500801 -111.152 -25.432501 -0.12077904 0.35333964 -0.92766565 5.3208369e-05
48.698799 -111.075 -25.4228 -0.12080645 0.35297334 -0.92780149 0.00011344632
48.8964 -111.105 -25.4657 -0.12076095 0.35283464 -0.92786014 0.00015747134
49.105701 -111.11 -25.4974 -0.12076508 0.35273993 -0.92789567 0.00016505383
49.3036 -111.033 -25.487301 -0.12090687 0.35287747 -0.92782485 0.00016041865
49.5014 -111.151 -25.566401 -0.12074614 0.35249916 -0.9279896 0.00018192343
49.6992 -111.073 -25.558599 -0.12078092 0.35253763 -0.92797041 0.00019457366
49.838501 -111.017 -25.556999 -0.12072171 0.35230932 -0.92806482 0.00020888647
48.9426 -110.977 -25.419701 -0.1206699 0.35247374 -0.92800927 0.00020663717
49.129501 -110.907 -25.4034 -0.12082358 0.35263866 -0.92792648 0.00018043327
49.303101 -110.834 -25.408899 -0.12083657 0.35309902 -0.92774981 0.00014000399
49.500801 -110.952 -25.4884 -0.12079089 0.35266522 -0.92792076 0.00019527509
49.698502 -110.874 -25.482201 -0.12087191 0.35248607 -0.92797816 0.0002055525
49.896702 -110.907 -25.517099 -0.12077542 0.35229054 -0.92806506 0.00022821386
50.1064 -110.914 -25.5425 -0.12086094 0.35276726 -0.92787278 0.00010737572
50.303398 -110.832 -25.5469 -0.1209534 0.35287249 -0.92782068 8.0226513e-05
49.503399 -110.754 -25.406401 -0.12081813 0.35306582 -0.92776471 0.00013624251
49.674599 -110.684 -25.405899 -0.12078635 0.35275376 -0.92788768 0.0001807885
49.919201 -110.729 -25.4538 -0.12087863 0.35255024 -0.927953 0.00018280346
50.105999 -110.716 -25.4624 -0.1208427 0.35264879 -0.9279201 0.00013792868
50.291401 -110.638 -25.4664 -0.12073752 0.35271513 -0.92790866 0.00013009603
50.5009 -110.753 -25.542801 -0.12096582 0.3530187 -0.92776352 4.7750484e-05
50.698799 -110.675 -25.5338 -0.1209514 0.35306695 -0.92774707 5.8845468e-05
50.838402 -110.62 -25.5289 -0.12086038 0.35275924 -0.92787588 9.9284181e-05
51.118099 -110.71 -25.596399 -0.12090209 0.3527807 -0.92786235 4.0378756e-05
51.338799 -110.621 -25.593 -0.12079642 0.35261387 -0.92793947 5.7535744e-05
49.895401 -110.596 -25.4004 -0.12092365 0.35269538 -0.92789191 0.00020738631
50.103699 -110.508 -25.4086 -0.12087545 0.35274416 -0.92787969 0.00015939288
50.383301 -110.596 -25.4788 -0.1209183 0.35294881 -0.92779619 9.2757371e-05
50.500702 -110.556 -25.4594 -0.12095911 0.35315433 -0.92771274 2.3180881e-05
50.698299 -110.477 -25.453899 -0.12109889 0.35303548 -0.92773974 7.7169971e-05
50.895599 -110.506 -25.5014 -0.12103558 0.35300201 -0.92776072 7.0376867e-05
51.105598 -110.514 -25.5235 -0.12102695 0.35283354 -0.92782599 8.2502076e-05
51.303001 -110.434 -25.521299 -0.12089887 0.35279512 -0.92785722 6.9319562e-05
51.4897 -110.56 -25.592199 -0.12087371 0.35259357 -0.92793715 8.5353851e-05
51.6987 -110.475 -25.5902 -0.12076014 0.35229272 -0.92806619 0.0001740991
51.8503 -110.418 -25.579599 -0.1208969 0.35225406 -0.92806298 0.00017824976
50.9417 -110.376 -25.457399 -0.12109472 0.35340926 -0.927598 7.6373844e-06
51.1049 -110.314 -25.446899 -0.12094829 0.35317737 -0.92770541 4.9688435e-05
51.302299 -110.234 -25.445801 -0.12072837 0.35221019 -0.92810166 0.00019335229
51.500198 -110.353 -25.5217 -0.1209251 0.35272354 -0.92788106 6.0725702e-05
51.6982 -110.276 -25.511999 -0.12088664 0.35264412 -0.92791623 0.00010553611
51.896198 -110.298 -25.5443 -0.12098429 0.35272354 -0.92787331 9.3224298e-05
52.106098 -110.316 -25.5721 -0.12105139 0.35313436 -0.92770827 5.5022963e-05
52.291199 -110.238 -25.5797 -0.12102323 0.35289803 -0.92780185 2.8621953e-05
51.500401 -110.158 -25.433001 -0.12084681 0.35261217 -0.92793351 0.00015379951
51.697498 -110.077 -25.434999 -0.12097673 0.35286593 -0.92782021 0.00010051347
51.895302 -110.097 -25.471201 -0.12102062 0.35280868 -0.92783618 0.0001091691
52.1054 -110.117 -25.496 -0.12098586 0.3526094 -0.92791653 0.00011264069
52.311901 -110.056 -25.5019 -0.12119284 0.35280523 -0.92781502 6.7591653e-05
52.500301 -110.154 -25.5763 -0.12116039 0.35335597 -0.92760968 0
52.6982 -110.076 -25.5676 -0.12112761 0.35322508 -0.92766374 0
52.8381 -110.023 -25.5576 -0.12133874 0.353479 -0.92753947 0
51.953602 -109.977 -25.4231 -0.12102966 0.35289484 -0.92780232 8.705131e-05
52.104401 -109.915 -25.4244 -0.12119111 0.35304368 -0.92772454 4.7980473e-05
52.302101 -109.837 -25.4177 -0.12119373 0.35297325 -0.92775106 5.069096e-05
52.499901 -109.956 -25.4956 -0.12109581 0.35301208 -0.9277491 8.6045411e-06
52.697899 -109.879 -25.4848 -0.12113202 0.35300618 -0.92774653 0
52.8951 -109.907 -25.534201 -0.12140822 0.35352859 -0.92751151 0
53.1045 -109.912 -25.563499 -0.12126175 0.35299414 -0.9277342 0
53.302601 -109.836 -25.551901 -0.12148561 0.3534086 -0.92754716 0
52.498901 -109.754 -25.424299 -0.12135778 0.35365754 -0.9274689 0
52.697102 -109.679 -25.410999 -0.12132392 0.35306224 -0.9277001 0
52.894001 -109.705 -25.4632 -0.12138321 0.35348576 -0.92753106 0
53.104301 -109.715 -25.480801 -0.12135015 0.35331652 -0.92759991 0
53.302101 -109.637 -25.4734 -0.12168201 0.35396543 -0.92730904 0
53.499699 -109.755 -25.554001 -0.12158027 0.35387361 -0.92735744 0
53.696899 -109.674 -25.554399 -0.12149943 0.35316971 -0.92763633 0
53.836102 -109.617 -25.5546 -0.12168164 0.35344064 -0.92750913 0
54.384602 -109.607 -25.597099 -0.1215852 0.35265973 -0.92781907 0
52.940399 -109.578 -25.4154 -0.12149633 0.35358155 -0.9274798 0
53.093399 -109.518 -25.408701 -0.12163825 0.35390827 -0.92733651 0
53.289299 -109.44 -25.4035 -0.12160756 0.35384378 -0.92736518 0
53.498501 -109.552 -25.485001 -0.1214321 0.35323307 -0.92762095 0
53.695801 -109.472 -25.4835 -0.12177638 0.35352004 -0.92746651 0
53.895 -109.511 -25.5047 -0.12185285 0.3533214 -0.92753214 0
54.103901 -109.513 -25.541401 -0.12179184 0.3533344 -0.92753518 0
54.301601 -109.435 -25.535999 -0.12179769 0.35331631 -0.92754132 0
54.489101 -109.564 -25.5963 -0.12178817 0.35287139 -0.92771196 0
54.744202 -109.46 -25.5977 -0.1219465 0.35263652 -0.92778045 0
54.883999 -109.406 -25.59 -0.12192634 0.35273066 -0.92774731 0
53.498199 -109.355 -25.4037 -0.1218101 0.35392764 -0.92730659 0
53.6838 -109.279 -25.403601 -0.12206093 0.35418198 -0.92717648 0
53.9403 -109.377 -25.471701 -0.12204818 0.35385504 -0.92730296 0
54.102798 -109.311 -25.471201 -0.12201869 0.35371187 -0.92736149 0
54.3008 -109.235 -25.461201 -0.121864 0.35281423 -0.92772365 0
54.499199 -109.356 -25.531401 -0.12172087 0.35245642 -0.92787844 4.9741222e-05
54.6968 -109.277 -25.526501 -0.12181857 0.35263321 -0.92779851 6.3060857e-06
54.8951 -109.3 -25.5541 -0.12202733 0.35316485 -0.92756879 0
55.107498 -109.313 -25.594 -0.12194489 0.35280645 -0.92771602 0
55.289902 -109.239 -25.592199 -0.12150462 0.35197073 -0.92809117 0.00010364088
54.498402 -109.156 -25.455299 -0.12183332 0.35256836 -0.92782116 1.2173473e-05
54.695499 -109.075 -25.4583 -0.12193935 0.35280788 -0.92771626 0
54.894402 -109.101 -25.477501 -0.1218248 0.35241291 -0.92788136 4.7541082e-05
55.103298 -109.114 -25.5196 -0.12182812 0.35225761 -0.92793995 3.3753433e-05
55.310001 -109.054 -25.523399 -0.12178386 0.3520276 -0.92803299 0.00011395374
55.4991 -109.156 -25.587099 -0.12166996 0.35273764 -0.9277783 0
55.696999 -109.078 -25.578899 -0.12183242 0.35250911 -0.92784381 0
55.848099 -109.018 -25.5755 -0.12195203 0.35242429 -0.92786032 0
54.951801 -108.976 -25.4438 -0.12173694 0.35222262 -0.92796516 9.9263358e-05
55.102699 -108.915 -25.442101 -0.12170219 0.35191426 -0.9280867 0.00014526429
55.3008 -108.839 -25.4303 -0.12189584 0.35232303 -0.92790616 0.00010549719
55.498699 -108.958 -25.507299 -0.12176394 0.3520472 -0.92802823 0.00011937662
55.695702 -108.876 -25.510401 -0.12175495 0.35209078 -0.92801285 6.3871994e-05
55.894199 -108.889 -25.530899 -0.12191627 0.35222107 -0.92794222 2.2104423e-05
56.103699 -108.916 -25.569799 -0.12211482 0.3525638 -0.92778587 0
56.300701 -108.834 -25.572901 -0.12208564 0.35240415 -0.92785043 6.9611215e-06
55.4977 -108.756 -25.435301 -0.12204663 0.35274535 -0.92772585 4.3781882e-05
55.695202 -108.677 -25.431999 -0.12183067 0.35218242 -0.92796814 7.6723016e-05
55.893299 -108.699 -25.462601 -0.1218458 0.35198292 -0.92804188 7.2958515e-05
56.102798 -108.716 -25.496 -0.12220042 0.35237968 -0.92784464 7.8919908e-07
56.2883 -108.639 -25.4979 -0.12220252 0.35236678 -0.92784923 9.6750227e-07
56.4981 -108.754 -25.571699 -0.12228013 0.35235137 -0.92784488 0
56.6964 -108.68 -25.556101 -0.1219817 0.35189283 -0.92805815 3.3792283e-05
56.836102 -108.625 -25.5506 -0.12197492 0.35198268 -0.92802495 4.1142383e-05
55.939201 -108.58 -25.4265 -0.12193773 0.35220352 -0.92794609 5.2902287e-05
56.102402 -108.518 -25.415899 -0.12207586 0.3521935 -0.92793173 5.7815258e-05
56.307999 -108.451 -25.435101 -0.12210664 0.35214782 -0.92794496 7.1078117e-05
56.4972 -108.554 -25.4977 -0.12228559 0.35210791 -0.92793661 4.3675322e-05
56.695999 -108.481 -25.4762 -0.12199052 0.35228032 -0.92790991 3.0938631e-05
56.893398 -108.51 -25.5221 -0.12210824 0.35245618 -0.92782772 0
57.102699 -108.515 -25.553101 -0.12210981 0.35224888 -0.92790622 0
57.300598 -108.438 -25.5445 -0.12218665 0.35228348 -0.92788297 0
56.496799 -108.356 -25.4168 -0.12219997 0.35222411 -0.92790377 4.3891367e-05
56.700802 -108.278 -25.4035 -0.12213298 0.35262811 -0.92775911 0
56.903099 -108.307 -25.4447 -0.12221596 0.35266587 -0.92773384 0
57.102299 -108.317 -25.473801 -0.12216458 0.35230464 -0.92787784 0
57.299999 -108.239 -25.467501 -0.12217783 0.35195774 -0.92800772 7.3657604e-05
57.497898 -108.358 -25.543301 -0.1222237 0.35164958 -0.92811847 0.00011836574
57.694901 -108.276 -25.5473 -0.12210543 0.35163364 -0.9281401 0.00013162162
57.846401 -108.218 -25.537901 -0.1221716 0.35198572 -0.92799795 8.3770443e-05
58.277599 -108.248 -25.5972 -0.12176906 0.351381 -0.92827988 0.00018128887
56.950401 -108.177 -25.4021 -0.12226644 0.35244492 -0.92781109 0
57.100899 -108.114 -25.406401 -0.12220067 0.35228312 -0.9278813 7.5922185e-06
57.356499 -108.011 -25.402 -0.12219683 0.35194159 -0.92801136 8.2958744e-05
57.496601 -108.155 -25.4753 -0.12236306 0.35163635 -0.92810518 0.00012760606
57.7057 -108.071 -25.4723 -0.12215383 0.35164639 -0.9281289 0.00016776548
57.905701 -108.108 -25.505501 -0.12210736 0.35200241 -0.92800003 0.00010467387
58.102402 -108.117 -25.527201 -0.12210446 0.35188103 -0.92804646 0.00011925545
58.2995 -108.036 -25.5296 -0.12199949 0.35178891 -0.92809522 0.00012249436
58.5368 -108.143 -25.5961 -0.12186851 0.35164708 -0.92816615 0.00013472875
58.672501 -108.089 -25.591999 -0.12200046 0.35204664 -0.92799729 9.3214279e-05
